# .PCD v0.7 - Point Cloud Data file format
VERSION 0.7
FIELDS x y z
SIZE 4 4 4
TYPE F F F
COUNT 1 1 1
WIDTH 1713
HEIGHT 1
VIEWPOINT 0 0 0 1 0 0 0
POINTS 1713
DATA ascii
21.0396 -33.153 99.121803
21.0396 -33.153 99.456596
21.0396 -33.153 99.791496
21.0396 -33.153 100.126
21.0396 -33.153 100.461
21.0396 -33.153 100.796
20.5576 -32.3936 101.131
21.0396 -33.153 101.466
20.5576 -32.3936 101.801
21.0396 -33.153 102.136
21.0396 -33.153 102.47
20.5576 -32.3936 102.805
20.5576 -32.3936 103.14
21.0396 -33.153 103.475
20.5576 -32.3936 103.81
20.5576 -32.3936 104.145
20.5576 -32.3936 104.48
20.5576 -32.3936 104.815
20.5576 -32.3936 105.149
20.5576 -32.3936 105.484
20.5576 -32.3936 105.819
20.5576 -32.3936 106.154
20.5576 -32.3936 106.489
20.0786 -31.6387 106.824
20.5576 -32.3936 107.159
20.5576 -32.3936 107.494
20.0786 -31.6387 107.828
20.0786 -31.6387 108.163
20.0786 -31.6387 108.498
20.0786 -31.6387 108.833
20.0786 -31.6387 109.168
19.6024 -30.888399 109.503
19.6024 -30.888399 109.838
19.6024 -30.888399 110.173
19.129 -30.1425 110.507
15.8923 -25.0422 110.842
15.8923 -25.0422 111.177
14.9915 -23.622801 111.512
14.9915 -23.622801 111.847
14.9915 -23.622801 112.182
14.9915 -23.622801 112.517
16.8036 -26.478201 112.851
15.8923 -25.0422 113.186
15.8923 -25.0422 113.521
16.8036 -26.478201 113.856
16.8036 -26.478201 114.191
17.263201 -27.202499 114.526
17.263201 -27.202499 114.861
18.6584 -29.400999 115.196
18.6584 -29.400999 115.53
17.725599 -27.931 115.865
17.725599 -27.931 116.2
-11.2198 18.971701 21.7666
-11.2198 18.971701 22.1015
-10.9241 18.471701 22.4363
-10.9241 18.471701 22.7712
-10.9241 18.471701 23.1061
-10.9241 18.471701 23.441
-10.9241 18.471701 23.775801
-10.9241 18.471701 24.110701
-11.8073 19.965 24.445601
-7.5807199 12.8183 27.1245
-7.26825 12.2899 27.4594
-7.26825 12.2899 27.7943
-7.26825 12.2899 28.129101
-6.6388798 11.2257 28.464001
-6.6388798 11.2257 28.798901
-6.6388798 11.2257 29.133801
-6.6388798 11.2257 29.468599
-6.32197 10.6899 29.803499
-6.6388798 11.2257 30.138399
-6.6388798 11.2257 30.4732
-6.32197 10.6899 30.8081
-6.32197 10.6899 31.143
-6.32197 10.6899 31.4779
-6.00354 10.1514 31.8127
-6.00354 10.1514 32.147598
-6.00354 10.1514 32.482498
-6.00354 10.1514 32.817299
-5.6835999 9.6104498 33.152199
-5.6835999 9.6104498 33.487099
-5.6835999 9.6104498 33.821999
-5.3621302 9.0668602 34.156799
-5.6835999 9.6104498 34.491699
-5.3621302 9.0668602 34.826599
-5.6835999 9.6104498 35.1614
-5.3621302 9.0668602 35.4963
-6.00354 10.1514 35.8312
-5.6835999 9.6104498 36.166
-5.6835999 9.6104498 36.5009
-5.6835999 9.6104498 36.8358
-5.3621302 9.0668602 37.1707
-5.3621302 9.0668602 37.505501
-5.0391202 8.5206804 37.840401
-5.6835999 9.6104498 38.175301
-5.3621302 9.0668602 38.510101
-5.3621302 9.0668602 38.845001
-5.3621302 9.0668602 39.179901
-5.3621302 9.0668602 39.514801
-5.3621302 9.0668602 39.849602
-5.6835999 9.6104498 40.184502
-5.3621302 9.0668602 40.519402
-5.3621302 9.0668602 40.854198
-5.6835999 9.6104498 41.189098
-5.6835999 9.6104498 41.523998
-5.6835999 9.6104498 41.858898
12.9767 -21.9424 45.5424
12.5597 -21.2372 45.8773
12.5597 -21.2372 46.2122
12.5597 -21.2372 46.547001
13.3961 -22.651501 46.881901
13.3961 -22.651501 47.216801
13.3961 -22.651501 47.551701
14.2421 -24.0821 47.886501
14.2421 -24.0821 48.221401
14.2421 -24.0821 48.556301
14.2421 -24.0821 48.891102
14.2421 -24.0821 49.226002
14.6687 -24.803499 49.560902
15.9636 -26.993 49.895802
15.9636 -26.993 50.230598
15.9636 -26.993 50.565498
16.400299 -27.7313 50.900398
16.8395 -28.474001 51.235199
16.8395 -28.474001 51.570099
16.400299 -27.7313 51.904999
16.8395 -28.474001 52.239799
17.2813 -29.221001 52.574699
17.2813 -29.221001 52.909599
17.7257 -29.9725 53.244499
17.7257 -29.9725 53.5793
18.1728 -30.7285 53.9142
18.1728 -30.7285 54.2491
18.1728 -30.7285 54.5839
18.1728 -30.7285 54.9188
18.622499 -31.488899 55.2537
18.622499 -31.488899 55.5886
18.1728 -30.7285 55.923401
19.0749 -32.253799 56.258301
19.0749 -32.253799 56.593201
19.0749 -32.253799 56.928001
19.0749 -32.253799 57.262901
19.0749 -32.253799 57.597801
18.622499 -31.488899 57.932701
19.0749 -32.253799 58.267502
19.530001 -33.023399 58.602402
19.530001 -33.023399 58.937302
19.987801 -33.7976 59.272099
19.987801 -33.7976 59.606998
19.987801 -33.7976 59.941898
19.987801 -33.7976 60.276699
20.4484 -34.576401 60.611599
20.9118 -35.360001 60.946499
20.9118 -35.360001 61.281399
20.9118 -35.360001 61.616199
20.9118 -35.360001 61.951099
19.987801 -33.7976 62.285999
20.9118 -35.360001 62.6208
20.4484 -34.576401 62.9557
19.987801 -33.7976 63.2906
20.4484 -34.576401 63.6255
20.4484 -34.576401 63.9603
20.4484 -34.576401 64.295197
19.987801 -33.7976 64.630096
19.987801 -33.7976 64.964897
19.987801 -33.7976 65.299797
19.987801 -33.7976 65.634697
19.987801 -33.7976 65.969597
19.987801 -33.7976 66.304398
19.987801 -33.7976 66.639297
19.987801 -33.7976 66.974197
19.987801 -33.7976 67.308998
19.987801 -33.7976 67.643898
19.987801 -33.7976 67.978798
19.987801 -33.7976 68.313599
19.987801 -33.7976 68.648499
19.530001 -33.023399 68.983398
19.987801 -33.7976 69.318298
19.530001 -33.023399 69.653099
19.987801 -33.7976 69.987999
19.987801 -33.7976 70.322899
19.987801 -33.7976 70.6577
19.987801 -33.7976 70.992599
19.987801 -33.7976 71.327499
19.987801 -33.7976 71.662399
19.987801 -33.7976 71.9972
19.987801 -33.7976 72.3321
19.987801 -33.7976 72.667
19.987801 -33.7976 73.001801
19.987801 -33.7976 73.3367
19.987801 -33.7976 73.6716
19.987801 -33.7976 74.0065
19.987801 -33.7976 74.341301
19.987801 -33.7976 74.676201
19.0749 -32.253799 75.011101
18.622499 -31.488899 75.345901
18.622499 -31.488899 75.680801
18.622499 -31.488899 76.015701
18.622499 -31.488899 76.350502
19.0749 -32.253799 76.685402
19.0749 -32.253799 77.020302
18.622499 -31.488899 77.355202
18.622499 -31.488899 77.690002
19.0749 -32.253799 78.024902
19.0749 -32.253799 78.359802
18.622499 -31.488899 78.694603
18.622499 -31.488899 79.029503
19.0749 -32.253799 79.364403
18.622499 -31.488899 79.699303
19.0749 -32.253799 80.034103
19.0749 -32.253799 80.369003
19.0749 -32.253799 80.703903
19.0749 -32.253799 81.038696
19.0749 -32.253799 81.373596
19.0749 -32.253799 81.708504
19.530001 -33.023399 82.043404
19.0749 -32.253799 82.378197
19.0749 -32.253799 82.713097
19.530001 -33.023399 83.047997
19.987801 -33.7976 83.382797
19.0749 -32.253799 83.717697
19.530001 -33.023399 84.052597
19.530001 -33.023399 84.387497
19.0749 -32.253799 84.722298
19.0749 -32.253799 85.057198
19.0749 -32.253799 85.392097
20.4484 -34.576401 85.726898
20.4484 -34.576401 86.061798
19.530001 -33.023399 86.396698
19.530001 -33.023399 86.731499
19.530001 -33.023399 87.066399
19.987801 -33.7976 87.401299
20.4484 -34.576401 87.736198
20.9118 -35.360001 88.070999
20.9118 -35.360001 88.405899
21.378099 -36.1483 88.740799
21.847099 -36.941502 89.0756
20.4484 -34.576401 89.4105
20.9118 -35.360001 89.745399
21.378099 -36.1483 90.080299
21.378099 -36.1483 90.4151
21.847099 -36.941502 90.75
21.378099 -36.1483 91.0849
21.378099 -36.1483 91.419701
21.378099 -36.1483 91.754601
21.378099 -36.1483 92.0895
21.378099 -36.1483 92.424301
21.847099 -36.941502 92.759201
21.847099 -36.941502 93.094101
21.847099 -36.941502 93.429001
22.319099 -37.739498 93.763802
22.319099 -37.739498 94.098701
21.847099 -36.941502 94.433601
21.847099 -36.941502 94.768402
21.378099 -36.1483 95.103302
21.378099 -36.1483 95.438202
21.378099 -36.1483 95.773102
21.378099 -36.1483 96.107903
22.319099 -37.739498 96.442802
21.378099 -36.1483 96.777702
21.378099 -36.1483 97.112503
20.9118 -35.360001 97.447403
20.9118 -35.360001 97.782303
20.9118 -35.360001 98.117104
20.9118 -35.360001 98.452003
20.4484 -34.576401 98.786903
20.4484 -34.576401 99.121803
20.4484 -34.576401 99.456596
20.4484 -34.576401 99.791496
20.4484 -34.576401 100.126
20.4484 -34.576401 100.461
20.4484 -34.576401 100.796
20.4484 -34.576401 101.131
20.4484 -34.576401 101.466
20.4484 -34.576401 101.801
20.4484 -34.576401 102.136
20.4484 -34.576401 102.47
19.987801 -33.7976 102.805
19.987801 -33.7976 103.14
19.987801 -33.7976 103.475
19.987801 -33.7976 103.81
19.987801 -33.7976 104.145
19.987801 -33.7976 104.48
19.987801 -33.7976 104.815
19.987801 -33.7976 105.149
19.987801 -33.7976 105.484
19.530001 -33.023399 105.819
19.530001 -33.023399 106.154
19.530001 -33.023399 106.489
19.530001 -33.023399 106.824
19.530001 -33.023399 107.159
19.530001 -33.023399 107.494
19.530001 -33.023399 107.828
19.530001 -33.023399 108.163
19.0749 -32.253799 108.498
17.2813 -29.221001 108.833
19.0749 -32.253799 109.168
19.0749 -32.253799 109.503
17.7257 -29.9725 109.838
15.9636 -26.993 110.173
15.9636 -26.993 110.507
15.5295 -26.2589 110.842
15.9636 -26.993 111.177
15.9636 -26.993 111.512
15.9636 -26.993 111.847
15.0979 -25.5291 112.182
15.5295 -26.2589 112.517
15.9636 -26.993 112.851
15.0979 -25.5291 113.186
15.5295 -26.2589 113.521
15.9636 -26.993 113.856
15.9636 -26.993 114.191
16.8395 -28.474001 114.526
16.8395 -28.474001 114.861
17.7257 -29.9725 115.196
17.7257 -29.9725 115.53
16.8395 -28.474001 115.865
17.7257 -29.9725 116.2
17.7257 -29.9725 116.535
17.7257 -29.9725 116.87
-5.9830699 10.8832 15.4041
-5.6817098 10.335 16.073799
-5.6817098 10.335 16.408701
-5.3789201 9.7842398 17.0784
-5.3789201 9.7842398 17.748199
-5.0746799 9.2308102 18.083
-4.76899 8.6747599 19.087601
-11.1743 20.326099 20.092199
-10.6184 19.3148 20.427099
-10.6184 19.3148 20.761999
-10.3385 18.8057 21.096901
-10.3385 18.8057 21.4317
-10.3385 18.8057 21.7666
-10.6184 19.3148 22.1015
-10.3385 18.8057 22.4363
-10.3385 18.8057 22.7712
-10.3385 18.8057 23.1061
-10.3385 18.8057 23.441
-10.0574 18.294399 23.775801
-9.7750196 17.780701 24.110701
-9.7750196 17.780701 24.445601
-3.2181799 5.8538599 24.780399
-7.4686899 13.5855 27.1245
-6.8786201 12.5122 27.4594
-6.8786201 12.5122 27.7943
-6.8786201 12.5122 28.129101
-6.5815001 11.9717 28.464001
-6.5815001 11.9717 28.798901
-6.28299 11.4287 29.133801
-6.28299 11.4287 29.468599
-6.28299 11.4287 29.803499
-6.28299 11.4287 30.138399
-6.28299 11.4287 30.4732
-5.9830699 10.8832 30.8081
-5.9830699 10.8832 31.143
-5.9830699 10.8832 31.4779
-5.9830699 10.8832 31.8127
-5.9830699 10.8832 32.147598
-5.6817098 10.335 32.482498
-5.6817098 10.335 32.817299
-5.6817098 10.335 33.152199
-5.6817098 10.335 33.487099
-5.3789201 9.7842398 33.821999
-5.3789201 9.7842398 34.156799
-5.6817098 10.335 34.491699
-5.9830699 10.8832 34.826599
-5.9830699 10.8832 35.1614
-5.6817098 10.335 35.4963
-4.76899 8.6747599 35.8312
-5.3789201 9.7842398 36.166
-5.0746799 9.2308102 36.5009
-5.0746799 9.2308102 36.8358
-5.0746799 9.2308102 37.1707
-5.0746799 9.2308102 37.505501
-5.0746799 9.2308102 37.840401
-5.3789201 9.7842398 38.175301
-5.3789201 9.7842398 38.510101
-5.0746799 9.2308102 38.845001
-5.0746799 9.2308102 39.179901
-5.0746799 9.2308102 39.514801
-5.0746799 9.2308102 39.849602
-5.3789201 9.7842398 40.184502
-5.0746799 9.2308102 40.519402
-5.3789201 9.7842398 40.854198
-5.3789201 9.7842398 41.189098
-5.3789201 9.7842398 41.523998
-5.3789201 9.7842398 41.858898
13.0771 -23.787201 46.2122
12.678 -23.0611 46.547001
12.678 -23.0611 46.881901
13.4786 -24.5175 47.216801
13.4786 -24.5175 47.551701
13.4786 -24.5175 47.886501
13.8824 -25.252001 48.221401
13.8824 -25.252001 48.556301
14.2885 -25.9907 48.891102
14.2885 -25.9907 49.226002
14.697 -26.733801 49.560902
14.697 -26.733801 49.895802
14.697 -26.733801 50.230598
15.1078 -27.4811 50.565498
15.5211 -28.2328 50.900398
15.1078 -27.4811 51.235199
15.9368 -28.988899 51.570099
16.3549 -29.7495 51.904999
16.3549 -29.7495 52.239799
16.775499 -30.5145 52.574699
17.198601 -31.2841 52.909599
16.775499 -30.5145 53.244499
17.198601 -31.2841 53.5793
17.198601 -31.2841 53.9142
17.624201 -32.0583 54.2491
16.775499 -30.5145 54.5839
16.775499 -30.5145 54.9188
16.775499 -30.5145 55.2537
18.052299 -32.837101 55.5886
18.052299 -32.837101 55.923401
18.052299 -32.837101 56.258301
17.624201 -32.0583 56.593201
17.624201 -32.0583 56.928001
17.624201 -32.0583 57.262901
17.624201 -32.0583 57.597801
18.052299 -32.837101 57.932701
17.624201 -32.0583 58.267502
18.052299 -32.837101 58.602402
18.052299 -32.837101 58.937302
18.9163 -34.408699 59.272099
18.9163 -34.408699 59.606998
18.9163 -34.408699 59.941898
19.7908 -35.999401 60.276699
19.352301 -35.201698 60.611599
19.7908 -35.999401 60.946499
19.7908 -35.999401 61.281399
19.7908 -35.999401 61.616199
19.7908 -35.999401 61.951099
19.7908 -35.999401 62.285999
19.7908 -35.999401 62.6208
19.7908 -35.999401 62.9557
19.7908 -35.999401 63.2906
19.7908 -35.999401 63.6255
19.7908 -35.999401 63.9603
19.7908 -35.999401 64.295197
19.7908 -35.999401 64.630096
19.7908 -35.999401 64.964897
19.7908 -35.999401 65.299797
19.7908 -35.999401 65.634697
19.7908 -35.999401 65.969597
19.7908 -35.999401 66.304398
19.7908 -35.999401 66.639297
19.352301 -35.201698 66.974197
18.9163 -34.408699 67.308998
18.483 -33.620499 67.643898
18.9163 -34.408699 67.978798
18.9163 -34.408699 68.313599
18.9163 -34.408699 68.648499
18.9163 -34.408699 68.983398
18.9163 -34.408699 69.318298
18.9163 -34.408699 69.653099
18.9163 -34.408699 69.987999
18.9163 -34.408699 70.322899
19.352301 -35.201698 70.6577
19.352301 -35.201698 70.992599
19.7908 -35.999401 71.327499
19.7908 -35.999401 71.662399
19.352301 -35.201698 71.9972
19.7908 -35.999401 72.3321
19.352301 -35.201698 72.667
18.9163 -34.408699 73.001801
18.9163 -34.408699 73.3367
18.483 -33.620499 73.6716
18.483 -33.620499 74.0065
18.483 -33.620499 74.341301
18.483 -33.620499 74.676201
18.483 -33.620499 75.011101
18.052299 -32.837101 75.345901
18.052299 -32.837101 75.680801
18.483 -33.620499 76.015701
18.483 -33.620499 76.350502
18.052299 -32.837101 76.685402
18.052299 -32.837101 77.020302
18.483 -33.620499 77.355202
18.483 -33.620499 77.690002
18.483 -33.620499 78.024902
18.052299 -32.837101 78.359802
18.483 -33.620499 78.694603
18.483 -33.620499 79.029503
18.483 -33.620499 79.364403
18.483 -33.620499 79.699303
18.052299 -32.837101 80.034103
18.052299 -32.837101 80.369003
18.052299 -32.837101 80.703903
18.052299 -32.837101 81.038696
18.052299 -32.837101 81.373596
18.483 -33.620499 81.708504
18.483 -33.620499 82.043404
18.9163 -34.408699 82.378197
18.9163 -34.408699 82.713097
18.9163 -34.408699 83.047997
18.9163 -34.408699 83.382797
18.9163 -34.408699 83.717697
19.352301 -35.201698 84.052597
18.9163 -34.408699 84.387497
18.9163 -34.408699 84.722298
19.352301 -35.201698 85.057198
18.9163 -34.408699 85.392097
18.9163 -34.408699 85.726898
18.9163 -34.408699 86.061798
19.352301 -35.201698 86.396698
19.352301 -35.201698 86.731499
19.352301 -35.201698 87.066399
19.352301 -35.201698 87.401299
20.232 -36.801998 87.736198
20.676001 -37.609501 88.070999
20.676001 -37.609501 88.405899
20.676001 -37.609501 88.740799
19.7908 -35.999401 89.0756
20.676001 -37.609501 89.4105
21.122601 -38.422001 89.745399
20.232 -36.801998 90.080299
20.676001 -37.609501 90.4151
20.676001 -37.609501 90.75
20.676001 -37.609501 91.0849
20.232 -36.801998 91.419701
21.122601 -38.422001 91.754601
20.232 -36.801998 92.0895
20.232 -36.801998 92.424301
20.676001 -37.609501 92.759201
21.122601 -38.422001 93.094101
21.122601 -38.422001 93.429001
21.122601 -38.422001 93.763802
20.676001 -37.609501 94.098701
20.676001 -37.609501 94.433601
21.122601 -38.422001 94.768402
21.122601 -38.422001 95.103302
20.676001 -37.609501 95.438202
21.122601 -38.422001 95.773102
20.232 -36.801998 96.107903
20.232 -36.801998 96.442802
20.232 -36.801998 96.777702
19.352301 -35.201698 97.112503
19.352301 -35.201698 97.447403
21.122601 -38.422001 97.782303
20.676001 -37.609501 98.117104
20.232 -36.801998 98.452003
20.232 -36.801998 98.786903
19.7908 -35.999401 99.121803
20.232 -36.801998 99.456596
20.232 -36.801998 99.791496
20.232 -36.801998 100.126
20.232 -36.801998 100.461
19.7908 -35.999401 100.796
19.352301 -35.201698 101.131
19.352301 -35.201698 101.466
19.352301 -35.201698 101.801
19.7908 -35.999401 102.136
19.7908 -35.999401 102.47
19.7908 -35.999401 102.805
19.352301 -35.201698 103.14
19.352301 -35.201698 103.475
19.352301 -35.201698 103.81
19.352301 -35.201698 104.145
19.352301 -35.201698 104.48
19.352301 -35.201698 104.815
19.352301 -35.201698 105.149
19.352301 -35.201698 105.484
19.352301 -35.201698 105.819
18.9163 -34.408699 106.154
19.352301 -35.201698 106.489
18.9163 -34.408699 106.824
18.9163 -34.408699 107.159
18.9163 -34.408699 107.494
18.483 -33.620499 107.828
18.483 -33.620499 108.163
17.624201 -32.0583 108.498
17.624201 -32.0583 108.833
17.624201 -32.0583 109.168
18.483 -33.620499 109.503
16.775499 -30.5145 109.838
15.1078 -27.4811 110.173
15.1078 -27.4811 110.507
14.2885 -25.9907 110.842
14.2885 -25.9907 111.177
13.8824 -25.252001 111.512
15.1078 -27.4811 111.847
15.1078 -27.4811 112.182
13.8824 -25.252001 112.517
13.0771 -23.787201 112.851
13.8824 -25.252001 113.186
14.2885 -25.9907 113.521
13.8824 -25.252001 113.856
14.697 -26.733801 114.191
15.5211 -28.2328 114.526
15.9368 -28.988899 114.861
16.775499 -30.5145 115.196
16.775499 -30.5145 115.53
17.198601 -31.2841 115.865
15.9368 -28.988899 116.2
16.775499 -30.5145 116.535
18.483 -33.620499 116.87
17.624201 -32.0583 117.205
-6.7609 13.269 15.0692
-6.4822202 12.7221 15.4041
-6.20222 12.1725 16.073799
-5.9209099 11.6204 17.4133
-4.4941602 8.8202801 22.4363
-12.0744 23.6973 22.7712
-4.20469 8.2521696 23.1061
-12.3278 24.194599 24.110701
-3.91382 7.6813002 24.780399
-3.6215501 7.1076899 27.1245
-3.6215501 7.1076899 27.4594
-3.6215501 7.1076899 27.7943
17.4179 -34.184502 70.322899
17.8262 -34.985901 70.6577
17.4179 -34.184502 70.992599
17.8262 -34.985901 71.327499
17.4179 -34.184502 71.662399
17.4179 -34.184502 71.9972
17.8262 -34.985901 72.3321
17.8262 -34.985901 72.667
17.4179 -34.184502 73.001801
17.4179 -34.184502 73.3367
17.8262 -34.985901 73.6716
17.8262 -34.985901 74.0065
17.8262 -34.985901 74.341301
17.4179 -34.184502 74.676201
17.4179 -34.184502 75.011101
17.4179 -34.184502 75.345901
17.4179 -34.184502 75.680801
17.4179 -34.184502 76.015701
17.011999 -33.387901 76.350502
17.011999 -33.387901 76.685402
17.4179 -34.184502 77.020302
17.4179 -34.184502 77.355202
17.4179 -34.184502 77.690002
16.207399 -31.808901 78.024902
16.207399 -31.808901 78.359802
16.207399 -31.808901 78.694603
16.6085 -32.5961 79.029503
16.6085 -32.5961 79.364403
17.8262 -34.985901 79.699303
17.4179 -34.184502 80.034103
17.4179 -34.184502 80.369003
16.6085 -32.5961 80.703903
16.6085 -32.5961 81.038696
17.8262 -34.985901 81.373596
17.8262 -34.985901 81.708504
17.8262 -34.985901 82.043404
17.8262 -34.985901 82.378197
17.8262 -34.985901 82.713097
18.237 -35.792198 83.047997
18.237 -35.792198 83.382797
17.8262 -34.985901 83.717697
18.650299 -36.603298 84.052597
18.650299 -36.603298 84.387497
18.650299 -36.603298 84.722298
18.650299 -36.603298 85.057198
18.650299 -36.603298 85.392097
18.650299 -36.603298 85.726898
19.905399 -39.066502 90.080299
19.905399 -39.066502 92.759201
20.328899 -39.897598 93.094101
20.328899 -39.897598 93.429001
20.328899 -39.897598 93.763802
20.328899 -39.897598 94.098701
19.905399 -39.066502 94.433601
20.328899 -39.897598 94.768402
20.328899 -39.897598 95.103302
19.905399 -39.066502 95.438202
19.905399 -39.066502 95.773102
19.066099 -37.4193 96.107903
19.066099 -37.4193 96.442802
19.905399 -39.066502 96.777702
19.905399 -39.066502 97.112503
19.905399 -39.066502 97.447403
19.905399 -39.066502 99.791496
19.4844 -38.240398 100.126
19.4844 -38.240398 100.461
19.066099 -37.4193 100.796
19.066099 -37.4193 101.131
19.066099 -37.4193 101.466
19.066099 -37.4193 101.801
19.066099 -37.4193 102.136
18.237 -35.792198 102.47
18.237 -35.792198 102.805
18.237 -35.792198 103.14
18.237 -35.792198 103.475
18.237 -35.792198 103.81
17.8262 -34.985901 104.815
18.650299 -36.603298 105.484
18.650299 -36.603298 105.819
17.4179 -34.184502 106.154
17.4179 -34.184502 106.489
17.4179 -34.184502 106.824
17.4179 -34.184502 107.159
17.4179 -34.184502 107.828
16.6085 -32.5961 108.163
16.6085 -32.5961 108.498
16.6085 -32.5961 108.833
16.6085 -32.5961 109.168
16.6085 -32.5961 109.503
16.6085 -32.5961 109.838
16.207399 -31.808901 110.173
15.4124 -30.248501 110.507
15.0184 -29.475201 110.842
15.4124 -30.248501 111.177
13.85 -27.182199 111.512
12.3235 -24.1863 112.182
12.3235 -24.1863 112.517
12.7019 -24.928801 112.851
13.0824 -25.6756 113.186
13.85 -27.182199 113.521
13.4651 -26.426701 113.856
14.6266 -28.7064 114.191
14.2372 -27.942101 114.526
14.6266 -28.7064 114.861
16.207399 -31.808901 115.196
16.207399 -31.808901 115.53
15.8087 -31.0264 115.865
16.6085 -32.5961 116.2
16.6085 -32.5961 116.535
17.011999 -33.387901 116.87
17.4179 -34.184502 117.205
-9.8760099 20.9876 17.0784
-9.8760099 20.9876 17.4133
-9.6308804 20.4667 17.748199
-9.6308804 20.4667 18.083
-9.6308804 20.4667 18.4179
-9.1373196 19.417801 20.427099
-9.1373196 19.417801 20.761999
-8.8888597 18.889799 21.096901
-8.8888597 18.889799 21.4317
-8.8888597 18.889799 21.7666
-8.8888597 18.889799 22.1015
-8.6392803 18.3594 22.4363
-8.8888597 18.889799 22.7712
-8.6392803 18.3594 23.1061
-8.6392803 18.3594 23.441
-8.8888597 18.889799 23.775801
-6.3407698 13.4748 28.129101
-6.0794101 12.9194 28.464001
-6.0794101 12.9194 28.798901
-6.0794101 12.9194 29.133801
-6.0794101 12.9194 29.468599
-5.8168101 12.3614 29.803499
-5.8168101 12.3614 30.138399
-5.5529799 11.8007 30.4732
-5.5529799 11.8007 30.8081
-5.5529799 11.8007 31.143
-5.5529799 11.8007 31.4779
-5.28791 11.2374 31.8127
-5.28791 11.2374 32.147598
-5.28791 11.2374 32.482498
-5.0215602 10.6714 32.817299
-5.0215602 10.6714 33.152199
-5.0215602 10.6714 33.487099
-5.0215602 10.6714 33.821999
-5.0215602 10.6714 34.156799
-5.0215602 10.6714 34.491699
-5.0215602 10.6714 34.826599
-5.0215602 10.6714 35.1614
-4.4850602 9.5312405 35.4963
-4.4850602 9.5312405 35.8312
-4.4850602 9.5312405 36.166
-4.4850602 9.5312405 36.5009
-4.7539601 10.1027 36.8358
-4.4850602 9.5312405 37.1707
-4.4850602 9.5312405 37.505501
-4.4850602 9.5312405 37.840401
-4.4850602 9.5312405 38.175301
-4.4850602 9.5312405 38.510101
-4.4850602 9.5312405 38.845001
-4.4850602 9.5312405 39.179901
-4.4850602 9.5312405 39.514801
-4.4850602 9.5312405 39.849602
-4.4850602 9.5312405 40.184502
-4.4850602 9.5312405 40.519402
-4.4850602 9.5312405 40.854198
-4.7539601 10.1027 41.189098
-4.7539601 10.1027 41.523998
-4.7539601 10.1027 41.858898
-5.0215602 10.6714 42.193699
13.7177 -29.151699 48.556301
13.7177 -29.151699 48.891102
14.0851 -29.9324 49.226002
14.0851 -29.9324 49.560902
13.7177 -29.151699 49.895802
13.7177 -29.151699 50.230598
14.0851 -29.9324 50.565498
13.7177 -29.151699 50.900398
14.0851 -29.9324 51.235199
14.0851 -29.9324 51.570099
14.4546 -30.717699 51.904999
14.8264 -31.507601 52.239799
15.2003 -32.302299 52.574699
15.2003 -32.302299 52.909599
15.2003 -32.302299 53.244499
15.2003 -32.302299 53.5793
14.8264 -31.507601 53.9142
15.9548 -33.9058 54.2491
15.9548 -33.9058 54.5839
15.9548 -33.9058 54.9188
15.9548 -33.9058 55.2537
15.5765 -33.1017 55.5886
16.7185 -35.528599 55.923401
16.7185 -35.528599 56.258301
16.7185 -35.528599 56.593201
15.5765 -33.1017 56.928001
16.335501 -34.714699 57.262901
16.7185 -35.528599 57.597801
15.5765 -33.1017 57.932701
15.9548 -33.9058 58.267502
15.9548 -33.9058 58.602402
15.9548 -33.9058 58.937302
15.9548 -33.9058 59.272099
16.335501 -34.714699 59.606998
16.335501 -34.714699 59.941898
16.7185 -35.528599 60.276699
17.4914 -37.171001 60.611599
17.4914 -37.171001 60.946499
17.4914 -37.171001 61.281399
17.4914 -37.171001 61.616199
17.1038 -36.347301 61.951099
17.1038 -36.347301 62.285999
17.1038 -36.347301 62.6208
17.1038 -36.347301 62.9557
17.1038 -36.347301 63.2906
17.1038 -36.347301 63.6255
17.1038 -36.347301 63.9603
17.1038 -36.347301 64.295197
17.1038 -36.347301 64.630096
16.7185 -35.528599 64.964897
16.7185 -35.528599 65.299797
16.7185 -35.528599 65.634697
16.335501 -34.714699 65.969597
16.335501 -34.714699 66.304398
16.335501 -34.714699 66.639297
16.335501 -34.714699 66.974197
16.7185 -35.528599 67.308998
16.7185 -35.528599 67.643898
16.7185 -35.528599 67.978798
15.9548 -33.9058 68.313599
16.7185 -35.528599 68.648499
16.335501 -34.714699 68.983398
16.335501 -34.714699 69.318298
16.335501 -34.714699 69.653099
16.335501 -34.714699 69.987999
16.7185 -35.528599 70.322899
16.335501 -34.714699 70.6577
15.9548 -33.9058 70.992599
16.335501 -34.714699 71.327499
15.9548 -33.9058 71.662399
15.9548 -33.9058 71.9972
16.335501 -34.714699 72.3321
16.335501 -34.714699 72.667
15.9548 -33.9058 73.001801
15.9548 -33.9058 73.3367
15.5765 -33.1017 73.6716
15.5765 -33.1017 74.0065
15.9548 -33.9058 74.341301
15.9548 -33.9058 74.676201
15.5765 -33.1017 75.011101
15.5765 -33.1017 75.345901
15.5765 -33.1017 75.680801
15.5765 -33.1017 76.015701
15.5765 -33.1017 76.350502
15.5765 -33.1017 76.685402
15.5765 -33.1017 77.020302
15.5765 -33.1017 77.355202
15.5765 -33.1017 77.690002
15.5765 -33.1017 78.024902
15.2003 -32.302299 78.359802
15.5765 -33.1017 78.694603
15.5765 -33.1017 79.029503
15.2003 -32.302299 79.364403
15.2003 -32.302299 79.699303
15.5765 -33.1017 80.034103
15.9548 -33.9058 80.369003
15.9548 -33.9058 80.703903
15.9548 -33.9058 81.038696
15.9548 -33.9058 81.373596
15.9548 -33.9058 81.708504
16.335501 -34.714699 82.043404
16.335501 -34.714699 82.378197
16.335501 -34.714699 82.713097
16.335501 -34.714699 83.047997
16.7185 -35.528599 83.382797
16.7185 -35.528599 83.717697
17.1038 -36.347301 84.052597
16.7185 -35.528599 84.387497
17.1038 -36.347301 84.722298
17.8813 -37.999699 85.057198
18.273701 -38.8335 85.392097
18.273701 -38.8335 85.726898
18.273701 -38.8335 86.061798
18.273701 -38.8335 86.396698
18.6684 -39.672401 86.731499
18.6684 -39.672401 87.066399
19.065599 -40.516499 87.401299
19.065599 -40.516499 87.736198
19.065599 -40.516499 88.070999
19.065599 -40.516499 88.405899
19.4652 -41.3657 88.740799
19.4652 -41.3657 89.0756
19.4652 -41.3657 89.4105
19.4652 -41.3657 89.745399
19.4652 -41.3657 90.080299
19.4652 -41.3657 90.4151
19.4652 -41.3657 90.75
19.4652 -41.3657 91.0849
19.8673 -42.220299 91.419701
19.4652 -41.3657 91.754601
19.8673 -42.220299 92.0895
19.8673 -42.220299 92.424301
19.8673 -42.220299 92.759201
19.8673 -42.220299 93.094101
19.8673 -42.220299 93.429001
19.8673 -42.220299 93.763802
19.8673 -42.220299 94.098701
19.4652 -41.3657 94.433601
19.4652 -41.3657 94.768402
19.065599 -40.516499 95.103302
19.065599 -40.516499 95.438202
19.065599 -40.516499 95.773102
19.065599 -40.516499 96.107903
19.065599 -40.516499 96.442802
19.065599 -40.516499 96.777702
19.065599 -40.516499 97.112503
18.6684 -39.672401 97.447403
18.6684 -39.672401 97.782303
18.6684 -39.672401 98.117104
18.6684 -39.672401 98.452003
18.6684 -39.672401 98.786903
18.6684 -39.672401 99.121803
18.6684 -39.672401 99.456596
18.273701 -38.8335 99.791496
18.273701 -38.8335 100.126
18.273701 -38.8335 100.461
18.273701 -38.8335 100.796
18.273701 -38.8335 101.131
17.8813 -37.999699 101.466
17.8813 -37.999699 101.801
17.8813 -37.999699 102.136
17.8813 -37.999699 102.47
17.8813 -37.999699 102.805
17.4914 -37.171001 103.14
17.8813 -37.999699 103.475
17.1038 -36.347301 103.81
17.1038 -36.347301 104.145
17.1038 -36.347301 104.48
17.1038 -36.347301 104.815
17.1038 -36.347301 105.149
17.1038 -36.347301 105.484
17.1038 -36.347301 105.819
16.335501 -34.714699 106.154
17.1038 -36.347301 106.489
16.335501 -34.714699 106.824
16.335501 -34.714699 107.159
16.335501 -34.714699 107.494
16.335501 -34.714699 107.828
14.8264 -31.507601 108.163
14.8264 -31.507601 108.498
14.8264 -31.507601 108.833
14.8264 -31.507601 109.168
13.3525 -28.3755 109.503
14.0851 -29.9324 109.838
13.3525 -28.3755 110.173
14.0851 -29.9324 110.507
14.0851 -29.9324 110.842
14.4546 -30.717699 111.177
10.5053 -22.3249 111.512
11.5577 -24.561399 111.847
10.8541 -23.0662 112.182
11.5577 -24.561399 112.517
11.9126 -25.3155 112.851
11.9126 -25.3155 113.186
12.6284 -26.836599 113.521
12.9894 -27.6038 113.856
13.3525 -28.3755 114.191
13.7177 -29.151699 114.526
13.7177 -29.151699 114.861
14.8264 -31.507601 115.196
13.7177 -29.151699 115.53
14.8264 -31.507601 115.865
14.0851 -29.9324 116.2
14.8264 -31.507601 116.535
16.335501 -34.714699 116.87
15.5765 -33.1017 117.205
15.5765 -33.1017 117.54
17.4914 -37.171001 117.875
17.8813 -37.999699 118.209
17.1038 -36.347301 118.544
-9.2118998 21.287399 15.4041
-9.4395199 21.8134 15.7389
-9.4395199 21.8134 16.073799
-9.4395199 21.8134 16.408701
-9.6661301 22.337099 16.7435
-9.4395199 21.8134 17.0784
-9.2118998 21.287399 17.4133
-8.9832497 20.7591 17.748199
-9.2118998 21.287399 18.083
-8.2911301 19.1597 19.757401
-8.5228796 19.6952 20.092199
-8.5228796 19.6952 20.427099
-8.5228796 19.6952 20.761999
-8.5228796 19.6952 21.096901
-8.5228796 19.6952 21.4317
-8.2911301 19.1597 21.7666
-8.0583296 18.6217 22.1015
-8.0583296 18.6217 22.4363
-8.0583296 18.6217 22.7712
-8.0583296 18.6217 23.1061
-7.82446 18.081301 23.441
-7.82446 18.081301 23.775801
-7.82446 18.081301 24.110701
-6.1570401 14.2281 27.7943
-6.1570401 14.2281 28.129101
-5.9143901 13.6673 28.464001
-5.9143901 13.6673 28.798901
-5.9143901 13.6673 29.133801
-5.9143901 13.6673 29.468599
-5.4256601 12.538 29.803499
-5.4256601 12.538 30.138399
-5.4256601 12.538 30.4732
-5.4256601 12.538 30.8081
-5.4256601 12.538 31.143
-5.1795702 11.9693 31.4779
-4.9323201 11.3979 31.8127
-4.9323201 11.3979 32.147598
-4.9323201 11.3979 32.482498
-4.9323201 11.3979 32.817299
-4.9323201 11.3979 33.152199
-4.9323201 11.3979 33.487099
-4.6838899 10.8238 33.821999
-4.6838899 10.8238 34.156799
-4.6838899 10.8238 34.491699
-4.6838899 10.8238 34.826599
-4.6838899 10.8238 35.1614
-4.1834602 9.6674099 35.4963
-4.1834602 9.6674099 35.8312
-4.1834602 9.6674099 36.166
-4.1834602 9.6674099 36.5009
-4.4342799 10.247 36.8358
-4.4342799 10.247 37.1707
-4.4342799 10.247 37.505501
-4.4342799 10.247 37.840401
-4.1834602 9.6674099 38.175301
-4.1834602 9.6674099 38.510101
-4.1834602 9.6674099 38.845001
-4.1834602 9.6674099 39.179901
-4.4342799 10.247 39.514801
-4.4342799 10.247 39.849602
-4.1834602 9.6674099 40.184502
-4.4342799 10.247 40.519402
-4.4342799 10.247 40.854198
-4.1834602 9.6674099 41.189098
-4.4342799 10.247 41.523998
-4.4342799 10.247 41.858898
-4.4342799 10.247 42.193699
-4.6838899 10.8238 42.528599
13.138 -30.360001 49.895802
13.138 -30.360001 50.230598
13.138 -30.360001 50.565498
13.138 -30.360001 50.900398
13.8294 -31.9578 51.235199
13.4826 -31.1565 51.570099
13.138 -30.360001 51.904999
13.8294 -31.9578 52.239799
13.4826 -31.1565 52.574699
13.4826 -31.1565 52.909599
13.8294 -31.9578 53.244499
13.8294 -31.9578 53.5793
13.8294 -31.9578 53.9142
13.8294 -31.9578 54.2491
13.8294 -31.9578 54.5839
13.8294 -31.9578 54.9188
13.8294 -31.9578 55.2537
14.1782 -32.763802 55.5886
13.8294 -31.9578 55.923401
14.1782 -32.763802 56.258301
14.529 -33.5746 56.593201
14.529 -33.5746 56.928001
14.529 -33.5746 57.262901
14.529 -33.5746 57.597801
14.529 -33.5746 57.932701
14.882 -34.390202 58.267502
14.529 -33.5746 58.602402
14.529 -33.5746 58.937302
15.237 -35.210701 59.272099
15.237 -35.210701 59.606998
15.237 -35.210701 59.941898
15.237 -35.210701 60.276699
15.237 -35.210701 60.611599
15.237 -35.210701 60.946499
15.237 -35.210701 61.281399
15.237 -35.210701 61.616199
15.237 -35.210701 61.951099
15.237 -35.210701 62.285999
15.237 -35.210701 62.6208
15.237 -35.210701 62.9557
15.237 -35.210701 63.2906
15.5943 -36.036201 63.6255
15.237 -35.210701 63.9603
15.237 -35.210701 64.295197
15.5943 -36.036201 64.630096
15.237 -35.210701 64.964897
15.237 -35.210701 65.299797
15.237 -35.210701 65.634697
15.237 -35.210701 65.969597
15.237 -35.210701 66.304398
15.237 -35.210701 66.639297
15.237 -35.210701 66.974197
14.882 -34.390202 67.308998
14.882 -34.390202 67.643898
14.882 -34.390202 67.978798
15.237 -35.210701 68.313599
15.5943 -36.036201 68.648499
15.5943 -36.036201 68.983398
15.237 -35.210701 69.318298
14.529 -33.5746 69.653099
14.882 -34.390202 69.987999
14.882 -34.390202 70.322899
14.882 -34.390202 70.6577
14.882 -34.390202 70.992599
15.237 -35.210701 71.327499
14.529 -33.5746 71.662399
15.237 -35.210701 71.9972
14.882 -34.390202 72.3321
14.529 -33.5746 72.667
14.882 -34.390202 73.001801
14.882 -34.390202 73.3367
14.882 -34.390202 73.6716
14.882 -34.390202 74.0065
14.529 -33.5746 74.341301
14.529 -33.5746 74.676201
14.529 -33.5746 75.011101
14.529 -33.5746 75.345901
14.1782 -32.763802 75.680801
14.1782 -32.763802 76.015701
14.1782 -32.763802 76.350502
14.1782 -32.763802 76.685402
14.1782 -32.763802 77.020302
14.1782 -32.763802 77.355202
14.1782 -32.763802 77.690002
14.1782 -32.763802 78.024902
14.1782 -32.763802 78.359802
14.1782 -32.763802 78.694603
14.1782 -32.763802 79.029503
14.1782 -32.763802 79.364403
14.529 -33.5746 79.699303
14.529 -33.5746 80.034103
14.529 -33.5746 80.369003
14.529 -33.5746 80.703903
14.529 -33.5746 81.038696
14.529 -33.5746 81.373596
14.529 -33.5746 81.708504
14.882 -34.390202 82.043404
15.237 -35.210701 82.378197
15.237 -35.210701 82.713097
15.237 -35.210701 83.047997
15.237 -35.210701 83.382797
15.5943 -36.036201 83.717697
15.5943 -36.036201 84.052597
15.9536 -36.8666 84.387497
15.9536 -36.8666 84.722298
15.9536 -36.8666 85.057198
15.9536 -36.8666 85.392097
15.9536 -36.8666 85.726898
15.9536 -36.8666 86.061798
17.783501 -41.095402 86.396698
17.783501 -41.095402 86.731499
17.783501 -41.095402 87.066399
17.783501 -41.095402 87.401299
17.783501 -41.095402 87.736198
18.531401 -42.823502 88.070999
18.531401 -42.823502 88.405899
18.1563 -41.956799 88.740799
18.1563 -41.956799 89.0756
18.531401 -42.823502 89.4105
18.531401 -42.823502 89.745399
18.531401 -42.823502 90.080299
18.531401 -42.823502 90.4151
18.531401 -42.823502 90.75
18.1563 -41.956799 91.0849
18.531401 -42.823502 91.419701
18.531401 -42.823502 91.754601
18.531401 -42.823502 92.0895
18.531401 -42.823502 92.424301
18.531401 -42.823502 92.759201
18.1563 -41.956799 93.094101
18.1563 -41.956799 93.429001
18.1563 -41.956799 93.763802
18.1563 -41.956799 94.098701
18.1563 -41.956799 94.433601
18.1563 -41.956799 94.768402
18.1563 -41.956799 95.103302
18.1563 -41.956799 95.438202
17.783501 -41.095402 95.773102
17.783501 -41.095402 96.107903
17.783501 -41.095402 96.442802
17.783501 -41.095402 96.777702
17.783501 -41.095402 97.112503
17.783501 -41.095402 97.447403
17.783501 -41.095402 97.782303
17.413099 -40.239201 98.117104
17.413099 -40.239201 98.452003
17.413099 -40.239201 98.786903
17.413099 -40.239201 99.121803
17.413099 -40.239201 99.456596
17.044901 -39.388302 99.791496
16.6789 -38.542599 100.126
16.6789 -38.542599 100.461
16.6789 -38.542599 100.796
16.6789 -38.542599 101.131
17.044901 -39.388302 101.466
16.6789 -38.542599 101.801
16.315201 -37.702099 102.136
15.9536 -36.8666 102.47
15.9536 -36.8666 102.805
15.9536 -36.8666 103.14
15.9536 -36.8666 103.475
15.9536 -36.8666 103.81
15.9536 -36.8666 104.145
15.9536 -36.8666 104.48
15.9536 -36.8666 104.815
15.9536 -36.8666 105.149
15.9536 -36.8666 105.484
15.237 -35.210701 105.819
15.237 -35.210701 106.154
15.237 -35.210701 106.489
15.237 -35.210701 106.824
13.8294 -31.9578 107.159
13.8294 -31.9578 107.494
13.8294 -31.9578 107.828
13.8294 -31.9578 108.163
14.529 -33.5746 108.498
14.529 -33.5746 108.833
14.529 -33.5746 109.168
14.529 -33.5746 109.503
13.4826 -31.1565 109.838
13.4826 -31.1565 110.173
8.8337698 -20.413601 110.507
8.8337698 -20.413601 110.842
10.1242 -23.3957 111.177
10.1242 -23.3957 111.512
10.1242 -23.3957 111.847
10.7805 -24.9123 112.182
10.7805 -24.9123 112.517
11.1115 -25.6772 112.851
10.7805 -24.9123 113.186
12.4546 -28.780899 113.521
12.4546 -28.780899 113.856
12.4546 -28.780899 114.191
12.7953 -29.568199 114.526
13.138 -30.360001 114.861
13.4826 -31.1565 115.196
13.4826 -31.1565 115.53
14.1782 -32.763802 115.865
14.529 -33.5746 116.2
15.237 -35.210701 116.535
14.529 -33.5746 116.87
14.529 -33.5746 117.205
15.9536 -36.8666 117.54
16.315201 -37.702099 117.875
16.315201 -37.702099 118.209
15.9536 -36.8666 118.544
-8.9597301 22.6297 14.3994
-9.1688499 23.1579 14.7343
-9.1688499 23.1579 15.0692
-7.2526598 18.3181 15.4041
-7.2526598 18.3181 15.7389
-7.2526598 18.3181 16.073799
-7.0349002 17.768101 16.408701
-7.0349002 17.768101 16.7435
-7.9000301 19.953199 19.087601
-7.9000301 19.953199 19.422501
-7.9000301 19.953199 19.757401
-7.9000301 19.953199 20.092199
-7.9000301 19.953199 20.427099
-7.6852198 19.410601 20.761999
-7.6852198 19.410601 21.096901
-7.46943 18.865601 21.4317
-7.46943 18.865601 21.7666
-7.46943 18.865601 22.1015
-7.46943 18.865601 22.4363
-7.46943 18.865601 22.7712
-7.46943 18.865601 23.1061
-7.46943 18.865601 23.441
-7.2526598 18.3181 23.775801
-7.46943 18.865601 24.110701
-7.2526598 18.3181 24.445601
-7.2526598 18.3181 24.780399
-5.02916 12.7022 25.115299
-5.2561998 13.2756 28.464001
-5.4821701 13.8464 28.798901
-5.4821701 13.8464 29.133801
-5.4821701 13.8464 29.468599
-5.2561998 13.2756 29.803499
-5.2561998 13.2756 30.138399
-5.2561998 13.2756 30.4732
-5.02916 12.7022 30.8081
-5.02916 12.7022 31.143
-5.02916 12.7022 31.4779
-4.5718699 11.5472 31.8127
-4.5718699 11.5472 32.147598
-4.5718699 11.5472 32.482498
-4.5718699 11.5472 32.817299
-4.5718699 11.5472 33.152199
-4.5718699 11.5472 33.487099
-4.5718699 11.5472 33.821999
-4.3415899 10.9656 34.156799
-4.3415899 10.9656 34.491699
-4.3415899 10.9656 34.826599
-4.11022 10.3812 35.1614
-4.3415899 10.9656 35.4963
-4.3415899 10.9656 35.8312
-4.11022 10.3812 36.166
-3.8777399 9.7940502 36.5009
-4.11022 10.3812 36.8358
-4.11022 10.3812 37.1707
-3.8777399 9.7940502 37.505501
-3.8777399 9.7940502 37.840401
-4.11022 10.3812 38.175301
-4.11022 10.3812 38.510101
-4.11022 10.3812 38.845001
-4.11022 10.3812 39.179901
-4.11022 10.3812 39.514801
-4.11022 10.3812 39.849602
-4.11022 10.3812 40.184502
-4.11022 10.3812 40.519402
-4.11022 10.3812 40.854198
-4.11022 10.3812 41.189098
-4.11022 10.3812 41.523998
-4.11022 10.3812 41.858898
-4.11022 10.3812 42.193699
-4.11022 10.3812 42.528599
-4.3415899 10.9656 42.863499
10.9183 -27.576599 50.900398
10.608 -26.792801 51.235199
10.9183 -27.576599 51.570099
10.9183 -27.576599 51.904999
10.608 -26.792801 52.239799
13.142 -33.193001 52.574699
13.142 -33.193001 52.909599
13.142 -33.193001 53.244499
13.142 -33.193001 53.5793
13.142 -33.193001 53.9142
13.4673 -34.0144 54.2491
13.4673 -34.0144 54.5839
13.4673 -34.0144 54.9188
13.142 -33.193001 55.2537
13.4673 -34.0144 55.5886
13.142 -33.193001 55.923401
13.142 -33.193001 56.258301
13.142 -33.193001 56.593201
13.4673 -34.0144 56.928001
13.4673 -34.0144 57.262901
13.4673 -34.0144 57.597801
13.7944 -34.840698 57.932701
14.4546 -36.508202 58.267502
13.4673 -34.0144 58.602402
13.7944 -34.840698 58.937302
13.7944 -34.840698 59.272099
13.4673 -34.0144 59.606998
13.4673 -34.0144 59.941898
13.4673 -34.0144 60.276699
13.7944 -34.840698 60.611599
13.4673 -34.0144 60.946499
13.7944 -34.840698 61.281399
14.1235 -35.671902 61.616199
14.1235 -35.671902 61.951099
14.1235 -35.671902 62.285999
14.4546 -36.508202 62.6208
14.1235 -35.671902 62.9557
14.4546 -36.508202 63.2906
14.1235 -35.671902 63.6255
14.1235 -35.671902 63.9603
14.4546 -36.508202 64.295197
14.4546 -36.508202 64.630096
14.1235 -35.671902 64.964897
14.1235 -35.671902 65.299797
14.1235 -35.671902 65.634697
14.1235 -35.671902 65.969597
14.1235 -35.671902 66.304398
14.1235 -35.671902 66.639297
13.7944 -34.840698 66.974197
13.7944 -34.840698 67.308998
13.4673 -34.0144 67.643898
13.7944 -34.840698 67.978798
13.7944 -34.840698 68.313599
13.7944 -34.840698 68.648499
13.7944 -34.840698 68.983398
13.7944 -34.840698 69.318298
13.7944 -34.840698 69.653099
13.7944 -34.840698 69.987999
13.4673 -34.0144 70.322899
13.4673 -34.0144 70.6577
14.1235 -35.671902 70.992599
13.7944 -34.840698 71.327499
13.7944 -34.840698 71.662399
13.7944 -34.840698 71.9972
13.7944 -34.840698 72.3321
13.7944 -34.840698 72.667
13.4673 -34.0144 73.001801
13.4673 -34.0144 73.3367
13.4673 -34.0144 73.6716
13.142 -33.193001 74.0065
13.142 -33.193001 74.341301
13.4673 -34.0144 74.676201
13.142 -33.193001 75.011101
13.142 -33.193001 75.345901
13.142 -33.193001 75.680801
12.8187 -32.3764 76.015701
12.8187 -32.3764 76.350502
12.8187 -32.3764 76.685402
12.8187 -32.3764 77.020302
12.8187 -32.3764 77.355202
12.8187 -32.3764 77.690002
12.4973 -31.564699 78.024902
12.4973 -31.564699 78.359802
12.8187 -32.3764 78.694603
12.8187 -32.3764 79.029503
12.8187 -32.3764 79.364403
12.4973 -31.564699 79.699303
12.4973 -31.564699 80.034103
12.4973 -31.564699 80.369003
12.4973 -31.564699 80.703903
12.4973 -31.564699 81.038696
12.4973 -31.564699 81.373596
12.4973 -31.564699 81.708504
12.4973 -31.564699 82.043404
12.4973 -31.564699 82.378197
12.4973 -31.564699 82.713097
12.4973 -31.564699 83.047997
12.8187 -32.3764 83.382797
12.8187 -32.3764 83.717697
13.4673 -34.0144 84.052597
14.1235 -35.671902 84.387497
14.1235 -35.671902 84.722298
14.7877 -37.349602 85.057198
14.7877 -37.349602 85.392097
14.4546 -36.508202 85.726898
15.46 -39.047501 86.061798
15.46 -39.047501 86.396698
15.46 -39.047501 86.731499
15.46 -39.047501 87.066399
16.140499 -40.7663 87.401299
16.140499 -40.7663 87.736198
16.140499 -40.7663 88.070999
16.140499 -40.7663 88.405899
16.140499 -40.7663 88.740799
16.4839 -41.633701 89.0756
16.4839 -41.633701 89.4105
16.4839 -41.633701 89.745399
16.4839 -41.633701 90.080299
16.8295 -42.506401 90.4151
16.8295 -42.506401 90.75
17.177099 -43.384399 91.0849
16.8295 -42.506401 91.419701
17.177099 -43.384399 91.754601
17.177099 -43.384399 92.0895
17.177099 -43.384399 92.424301
16.8295 -42.506401 92.759201
16.8295 -42.506401 93.094101
16.8295 -42.506401 93.429001
16.8295 -42.506401 93.763802
16.8295 -42.506401 94.098701
16.8295 -42.506401 94.433601
16.8295 -42.506401 94.768402
16.4839 -41.633701 95.103302
16.140499 -40.7663 95.438202
16.140499 -40.7663 95.773102
16.4839 -41.633701 96.107903
16.140499 -40.7663 96.442802
16.140499 -40.7663 96.777702
16.140499 -40.7663 97.112503
16.140499 -40.7663 97.447403
16.140499 -40.7663 97.782303
16.140499 -40.7663 98.117104
16.140499 -40.7663 98.452003
16.140499 -40.7663 98.786903
16.140499 -40.7663 99.121803
15.46 -39.047501 99.456596
15.1229 -38.195999 99.791496
15.1229 -38.195999 100.126
15.1229 -38.195999 100.461
15.1229 -38.195999 100.796
15.1229 -38.195999 101.131
15.1229 -38.195999 101.466
14.7877 -37.349602 101.801
14.7877 -37.349602 102.136
14.7877 -37.349602 102.47
14.4546 -36.508202 102.805
14.4546 -36.508202 103.14
14.1235 -35.671902 103.475
14.1235 -35.671902 103.81
14.1235 -35.671902 104.145
14.1235 -35.671902 104.48
14.1235 -35.671902 104.815
13.7944 -34.840698 105.149
12.8187 -32.3764 105.484
13.4673 -34.0144 105.819
13.4673 -34.0144 106.154
13.4673 -34.0144 106.489
14.1235 -35.671902 106.824
13.7944 -34.840698 107.159
13.7944 -34.840698 107.494
12.4973 -31.564699 107.828
13.7944 -34.840698 108.163
13.4673 -34.0144 108.498
12.4973 -31.564699 108.833
7.0185299 -17.726801 109.168
7.0185299 -17.726801 109.503
7.0185299 -17.726801 109.838
7.8933401 -19.9363 110.173
8.1882 -20.681 110.507
8.1882 -20.681 110.842
8.7829103 -22.1831 111.177
9.3843699 -23.7022 111.512
9.9926901 -25.238701 111.847
9.6876698 -24.4683 112.182
9.6876698 -24.4683 112.517
9.9926901 -25.238701 112.851
10.2995 -26.0135 113.186
11.2305 -28.365 113.521
10.9183 -27.576599 113.856
11.5444 -29.1579 114.191
11.8602 -29.9555 114.526
12.1778 -30.7577 114.861
12.8187 -32.3764 115.196
12.8187 -32.3764 115.53
13.142 -33.193001 115.865
13.4673 -34.0144 116.2
13.7944 -34.840698 116.535
14.1235 -35.671902 116.87
14.7877 -37.349602 117.205
14.7877 -37.349602 117.54
14.7877 -37.349602 117.875
15.46 -39.047501 118.209
16.140499 -40.7663 118.544
16.140499 -40.7663 118.879
-7.2693901 20.1915 16.073799
-7.0717201 19.6425 16.408701
15.486 -43.014 17.0784
15.486 -43.014 17.4133
-7.4661598 20.7381 18.4179
-7.4661598 20.7381 18.7528
-7.2693901 20.1915 19.087601
-7.2693901 20.1915 19.422501
-7.2693901 20.1915 19.757401
-7.2693901 20.1915 20.092199
-7.2693901 20.1915 20.427099
-7.2693901 20.1915 20.761999
-7.2693901 20.1915 21.096901
-6.8731599 19.0909 21.4317
-7.0717201 19.6425 21.7666
-7.0717201 19.6425 22.1015
-7.0717201 19.6425 22.4363
-6.8731599 19.0909 22.7712
-6.8731599 19.0909 23.1061
-6.8731599 19.0909 23.441
-6.8731599 19.0909 23.775801
-6.6736898 18.5369 24.110701
-6.6736898 18.5369 24.445601
-6.6736898 18.5369 24.780399
-6.6736898 18.5369 25.115299
-4.8366098 13.4342 29.133801
-5.0445399 14.0117 29.468599
-5.0445399 14.0117 29.803499
-4.6276898 12.8539 30.138399
-5.0445399 14.0117 30.4732
-5.0445399 14.0117 30.8081
-4.6276898 12.8539 31.143
-4.6276898 12.8539 31.4779
-4.6276898 12.8539 31.8127
-4.6276898 12.8539 32.147598
-4.4177999 12.2709 32.482498
-4.2069101 11.6851 32.817299
-4.2069101 11.6851 33.152199
-4.2069101 11.6851 33.487099
-4.2069101 11.6851 33.821999
-4.2069101 11.6851 34.156799
-3.9950099 11.0966 34.491699
-3.9950099 11.0966 34.826599
-3.9950099 11.0966 35.1614
-3.9950099 11.0966 35.4963
-3.9950099 11.0966 35.8312
-3.78211 10.5052 36.166
-3.9950099 11.0966 36.5009
-3.78211 10.5052 36.8358
-3.78211 10.5052 37.1707
-3.78211 10.5052 37.505501
-3.78211 10.5052 37.840401
-3.78211 10.5052 38.175301
-3.78211 10.5052 38.510101
-3.78211 10.5052 38.845001
-3.78211 10.5052 39.179901
-3.78211 10.5052 39.514801
-3.78211 10.5052 39.849602
-3.78211 10.5052 40.184502
-3.78211 10.5052 40.519402
-3.78211 10.5052 40.854198
-3.78211 10.5052 41.189098
-3.78211 10.5052 41.523998
-3.78211 10.5052 41.858898
-3.78211 10.5052 42.193699
-3.78211 10.5052 42.528599
-3.9950099 11.0966 42.863499
9.7612 -27.112801 51.570099
10.334 -28.703699 51.904999
10.0468 -27.905899 52.239799
10.0468 -27.905899 52.574699
13.9156 -38.6521 52.909599
13.3008 -36.944302 53.244499
12.9961 -36.098 53.5793
12.9961 -36.098 53.9142
12.9961 -36.098 54.2491
12.9961 -36.098 54.5839
12.9961 -36.098 54.9188
12.9961 -36.098 55.2537
12.9961 -36.098 55.5886
12.9961 -36.098 55.923401
12.6932 -35.256802 56.258301
12.3922 -34.420601 56.593201
12.6932 -35.256802 56.928001
12.6932 -35.256802 57.262901
12.3922 -34.420601 57.597801
12.3922 -34.420601 57.932701
12.3922 -34.420601 58.267502
12.3922 -34.420601 58.602402
12.3922 -34.420601 58.937302
12.3922 -34.420601 59.272099
12.3922 -34.420601 59.606998
12.3922 -34.420601 59.941898
12.3922 -34.420601 60.276699
12.3922 -34.420601 60.611599
12.3922 -34.420601 60.946499
12.9961 -36.098 61.281399
12.3922 -34.420601 61.616199
13.3008 -36.944302 61.951099
13.3008 -36.944302 62.285999
13.3008 -36.944302 62.6208
13.3008 -36.944302 62.9557
13.3008 -36.944302 63.2906
13.3008 -36.944302 63.6255
13.3008 -36.944302 63.9603
13.3008 -36.944302 64.295197
13.3008 -36.944302 64.630096
13.3008 -36.944302 64.964897
13.3008 -36.944302 65.299797
12.9961 -36.098 65.634697
12.9961 -36.098 65.969597
12.6932 -35.256802 66.304398
12.6932 -35.256802 66.639297
12.3922 -34.420601 66.974197
12.6932 -35.256802 67.308998
12.6932 -35.256802 67.643898
12.6932 -35.256802 67.978798
12.9961 -36.098 68.313599
12.6932 -35.256802 68.648499
12.6932 -35.256802 68.983398
12.6932 -35.256802 69.318298
12.3922 -34.420601 69.653099
12.3922 -34.420601 69.987999
12.3922 -34.420601 70.322899
12.3922 -34.420601 70.6577
12.6932 -35.256802 70.992599
12.6932 -35.256802 71.327499
12.3922 -34.420601 71.662399
12.0929 -33.589401 71.9972
12.3922 -34.420601 72.3321
12.3922 -34.420601 72.667
12.3922 -34.420601 73.001801
12.3922 -34.420601 73.3367
12.0929 -33.589401 73.6716
12.0929 -33.589401 74.0065
11.7954 -32.7631 74.341301
12.0929 -33.589401 74.676201
12.0929 -33.589401 75.011101
11.7954 -32.7631 75.345901
11.7954 -32.7631 75.680801
11.4997 -31.9417 76.015701
11.4997 -31.9417 76.350502
11.4997 -31.9417 76.685402
11.4997 -31.9417 77.020302
11.4997 -31.9417 77.355202
11.4997 -31.9417 77.690002
11.4997 -31.9417 78.024902
11.4997 -31.9417 78.359802
11.2057 -31.125099 78.694603
11.4997 -31.9417 79.029503
11.2057 -31.125099 79.364403
11.2057 -31.125099 79.699303
10.9134 -30.3132 80.034103
11.2057 -31.125099 80.369003
11.2057 -31.125099 80.703903
10.9134 -30.3132 81.038696
11.2057 -31.125099 81.373596
10.9134 -30.3132 81.708504
10.9134 -30.3132 82.043404
11.4997 -31.9417 82.378197
11.2057 -31.125099 82.713097
11.4997 -31.9417 83.047997
11.4997 -31.9417 83.382797
11.7954 -32.7631 83.717697
11.7954 -32.7631 84.052597
12.0929 -33.589401 84.387497
12.0929 -33.589401 84.722298
12.0929 -33.589401 85.057198
12.0929 -33.589401 85.392097
12.0929 -33.589401 85.726898
12.6932 -35.256802 86.061798
12.9961 -36.098 86.396698
